3073.00 0.00 0.00
2917.84 580.39 0.00
2646.91 1096.39 0.00
2373.85 1586.15 0.00
2063.34 2063.34 0.00
1771.16 2650.73 0.00
1195.50 2886.20 0.00
470.17 2363.69 0.00
0.00 2042.00 0.00
-449.68 2260.71 0.00
-943.70 2278.29 0.00
-1352.26 2023.80 0.00
-1749.38 1749.38 0.00
-2264.09 1512.82 0.00
-2639.52 1093.33 0.00
-2873.70 571.61 0.00
-2420.00 0.00 0.00
-2074.36 -412.62 0.00
-1810.80 -750.06 0.00
-1863.32 -1245.03 0.00
-1798.88 -1798.88 0.00
-1601.71 -2397.13 0.00
-1004.16 -2424.26 0.00
-505.09 -2539.25 0.00
-0.00 -2597.00 0.00
441.10 -2217.56 0.00
714.47 -1724.88 0.00
949.47 -1420.98 0.00
1103.79 -1103.79 0.00
1258.01 -840.58 0.00
1410.76 -584.36 0.00
1551.60 -308.63 0.00
1669.00 -0.00 1200.00
1494.72 -297.32 1200.00
1360.87 -563.69 1200.00
1228.91 -821.13 1200.00
1107.33 -1107.33 1200.00
948.36 -1419.32 1200.00
743.17 -1794.17 1200.00
433.10 -2177.34 1200.00
-0.00 -2571.00 1200.00
-570.83 -2869.78 1200.00
-886.29 -2139.70 1200.00
-1490.04 -2230.00 1200.00
-2100.81 -2100.81 1200.00
-2604.99 -1740.60 1200.00
-2297.69 -951.73 1200.00
-2347.02 -466.85 1200.00
-2624.00 0.00 1200.00
-1914.49 380.82 1200.00
-1549.35 641.76 1200.00
-1374.42 918.36 1200.00
-1188.65 1188.65 1200.00
-992.80 1485.84 1200.00
-756.95 1827.43 1200.00
-446.37 2244.04 1200.00
0.00 2850.00 1200.00
605.17 3042.40 1200.00
1093.71 2640.45 1200.00
1553.93 2325.62 1200.00
1992.63 1992.63 1200.00
2439.53 1630.04 1200.00
2792.89 1156.85 1200.00
2262.67 450.07 1200.00
1713.00 0.00 2400.00
1134.77 225.72 2400.00
983.93 407.56 2400.00
799.04 533.90 2400.00
651.25 651.25 2400.00
505.57 756.64 2400.00
365.08 881.38 2400.00
197.82 994.52 2400.00
0.00 1131.00 2400.00
-263.37 1324.06 2400.00
-641.76 1549.35 2400.00
-870.02 1302.08 2400.00
-1044.40 1044.40 2400.00
-1209.79 808.35 2400.00
-1370.11 567.52 2400.00
-1569.26 312.14 2400.00
-2827.00 0.00 2400.00
-2350.94 -467.63 2400.00
-1885.64 -781.06 2400.00
-1563.16 -1044.47 2400.00
-1262.89 -1262.89 2400.00
-973.36 -1456.73 2400.00
-682.71 -1648.20 2400.00
-366.57 -1842.90 2400.00
-0.00 -2048.00 2400.00
400.13 -2011.59 2400.00
664.72 -1604.78 2400.00
886.69 -1327.03 2400.00
1071.97 -1071.97 2400.00
1218.10 -813.91 2400.00
1366.42 -565.99 2400.00
1531.99 -304.73 2400.00
1614.00 -0.00 3600.00
1514.33 -301.22 3600.00
1380.28 -571.73 3600.00
1241.38 -829.47 3600.00
1090.36 -1090.36 3600.00
944.47 -1413.50 3600.00
674.67 -1628.80 3600.00
301.22 -1514.33 3600.00
-0.00 -1647.00 3600.00
-362.28 -1821.32 3600.00
-691.89 -1670.37 3600.00
-987.80 -1478.35 3600.00
-1282.69 -1282.69 3600.00
-1636.33 -1093.36 3600.00
-2054.71 -851.09 3600.00
-2540.23 -505.28 3600.00
-2770.00 0.00 3600.00
-1490.79 296.54 3600.00
-1352.56 560.25 3600.00
-1203.14 803.91 3600.00
-1021.06 1021.06 3600.00
-810.58 1213.11 3600.00
-564.46 1362.72 3600.00
-304.54 1531.01 3600.00
0.00 1638.00 3600.00
277.81 1396.64 3600.00
459.22 1108.66 3600.00
571.68 855.58 3600.00
659.73 659.73 3600.00
737.51 492.79 3600.00
802.85 332.55 3600.00
892.51 177.53 3600.00
995.00 0.00 4800.00
979.80 194.90 4800.00
920.18 381.15 4800.00
814.01 543.90 4800.00
704.28 704.28 4800.00
647.24 968.66 4800.00
498.25 1202.89 4800.00
323.46 1626.14 4800.00
0.00 1609.00 4800.00
-287.17 1443.72 4800.00
-546.09 1318.38 4800.00
-802.80 1201.47 4800.00
-1057.12 1057.12 4800.00
-2258.27 1508.93 4800.00
-2379.91 985.79 4800.00
-2147.92 427.25 4800.00
-1971.00 0.00 4800.00
-1799.74 -357.99 4800.00
-1631.57 -675.82 4800.00
-1462.56 -977.25 4800.00
-1289.76 -1289.76 4800.00
-1097.81 -1642.98 4800.00
-810.14 -1955.85 4800.00
-359.55 -1807.59 4800.00
-0.00 -1660.00 4800.00
299.85 -1507.47 4800.00
567.52 -1370.11 4800.00
825.02 -1234.73 4800.00
1109.45 -1109.45 4800.00
1391.05 -929.47 4800.00
1447.72 -599.66 4800.00
1327.98 -264.15 4800.00
